# .PCD v0.7 - Point Cloud Data file format
VERSION 0.7
FIELDS x y z
SIZE 4 4 4
TYPE F F F
COUNT 1 1 1
WIDTH 827
HEIGHT 1
VIEWPOINT 0 0 0 1 0 0 0
POINTS 827
DATA ascii
2814.0342 55.289135 2.2203786
2718.2703 87.060997 2.1471558
520.71033 463.90317 0.31119505
553.78845 467.06268 0.34330568
1988.7704 305.78278 1.8014743
1973.7593 310.53046 1.794524
1678.5687 580.04376 1.5319139
639.28259 379.03534 0.55964005
819.69708 400.24472 0.6549595
1572.9164 430.93808 1.2493813
1513.3114 454.76099 1.2095671
1472.7599 459.24445 1.1702387
1448.6757 471.69791 1.1544514
1481.2823 458.39734 1.1741625
1437.5492 473.63632 1.1450853
1471.7279 461.36768 1.1741096
1471.7279 461.36768 1.1741096
1459.0879 465.10858 1.1576139
1459.0879 465.10858 1.1576139
1451.3418 467.49664 1.1583701
1471.4078 464.72787 1.1721419
17.75775 898.8222 2.2059872
1445.5261 467.24615 1.1462997
1445.5261 467.24615 1.1462997
31.361389 894.57135 2.1505198
-27.928606 -316.20676 -1.4711304
10.60565 -188.31572 -1.1898466
28.214916 -149.8345 -1.0965458
1431.5244 469.04486 1.134166
1438.2052 464.68646 1.1376593
1422.7146 470.95892 1.1331254
493.21796 524.11536 0.45638913
1423.351 466.27814 1.1244714
1404.958 478.92944 1.1151484
1398.4999 470.16418 1.1097829
1410.4833 471.55075 1.1184189
1381.7327 467.71906 1.0891969
1393.386 469.06314 1.0975058
1354.238 496.63049 1.083881
1376.7972 470.2243 1.082167
1361.4006 473.13058 1.0728915
1327.0145 504.87375 1.0555905
1318.675 507.31027 1.0570669
1318.675 507.31027 1.0570669
1313.8796 505.88248 1.0436078
1301.991 512.3703 1.0444342
1282.8932 511.34583 1.0308458
1264.2577 523.55591 1.0513773
808.50085 477.28723 0.66607749
558.49738 401.01428 0.47672859
1259.8845 513.44293 0.99198532
644.27179 834.26666 1.3308949
884.00336 805.48523 1.5233638
1277.0013 962.86334 1.6734394
1210.7173 539.70544 0.97326374
1210.7173 539.70544 0.97326374
1241.3866 513.87994 0.98211753
1321.4852 989.29791 1.8083996
878.21387 898.59332 1.6062245
870.01764 868.35205 1.5569484
1502.9744 1368.6071 2.3482471
399.65176 562.08173 0.65158784
1073.5325 851.93134 1.3470824
1207.9664 505.987 0.93792981
1317.8 917.49939 1.6504599
1195.3125 504.80557 0.92378843
1195.3125 504.80557 0.92378843
407.86829 699.81183 0.86692363
1000.8297 771.74261 1.3109274
1239.434 746.42377 1.3629458
1273.7092 1085.1809 1.8213751
1270.0789 1092.968 1.8432429
496.36304 737.14008 0.99284279
1153.0046 557.12622 0.917023
1153.0046 557.12622 0.917023
741.16046 778.27771 1.2997113
954.90869 799.78101 1.2556829
953.35022 728.28625 1.1946273
949.48749 724.81555 1.1910956
949.48749 724.81555 1.1910956
1372.8025 1151.3804 1.8140613
1111.5348 569.54517 0.87042022
1076.7114 579.67566 0.84933341
562.46509 786.86688 1.0717617
562.78339 784.42096 1.0672576
583.56683 789.5611 1.0794736
763.82794 680.98889 0.9022395
763.30609 743.27979 1.0029006
763.30609 743.27979 1.0029006
900.40515 678.28571 0.89629352
499.82047 552.37231 0.56720889
724.26367 796.52704 1.0058401
414.37604 752.91534 0.91434753
682.7926 800.48517 1.0119766
123.09766 117.56128 0.16033772
263.70758 849.27063 1.0092123
480.25116 603.32379 0.74853051
428.67871 978.09875 1.1540658
721.8446 557.24878 0.63244486
522.03839 788.02399 0.91767508
455.94888 688.31061 0.7192781
769.26868 829.10468 0.96441126
555.87463 746.30621 0.7921105
460.60373 767.1911 0.75002432
201.39368 135.517 0.13194646
467.69348 621.40979 0.63696361
751.36731 862.77246 1.0110695
470.05325 820.16162 0.90222675
469.99603 837.91431 0.91623867
651.04688 849.00928 0.97879112
662.65057 688.57642 0.784697
457.61847 674.80127 0.66393894
674.48871 737.83636 0.83139175
304.80792 837.61749 0.9279983
631.60126 770.84564 0.8853305
719.51501 863.56421 0.98734444
726.10419 853.32245 0.97789305
486.27734 700.84412 0.7698673
676.48492 473.01563 0.53691798
891.70605 549.77289 0.66957814
470.07486 848.01764 0.92786926
795.97766 588.41815 0.65346897
535.43402 753.50043 0.78951538
470.51794 728.60352 0.73853046
570.3786 768.56061 0.82270998
451.28616 656.12109 0.68248814
671.99261 736.13098 0.80749691
468.27023 767.45343 0.79395533
509.52148 785.97321 0.8486256
510.21176 784.17285 0.84580082
478.48465 688.50671 0.65993243
528.29559 675.6615 0.68497723
374.59601 885.96893 0.94617432
389.80908 775.24176 0.82115257
351.845 751.3111 0.80225217
615.76379 759.46918 0.82266694
711.65515 816.31232 0.90118694
91.150726 297.78995 0.23230584
527.27649 741.37952 0.758138
527.27649 741.37952 0.758138
618.05145 751.80493 0.81117171
570.80273 723.21478 0.79514033
389.22568 815.41351 0.86666542
389.22568 815.41351 0.86666542
506.62375 784.34454 0.83603376
549.9032 792.0152 0.85144895
397.44702 755.71381 0.79331398
520.22595 717.1488 0.74430108
571.46533 723.55652 0.77107298
518.89624 730.62164 0.75547767
570.16211 764.77136 0.80849975
472.76437 752.48694 0.76414734
454.46841 669.21051 0.69622064
488.64261 727.55121 0.75442672
488.64261 727.55121 0.75442672
504.01303 777.68768 0.80281663
504.01303 777.68768 0.80281663
534.25531 762.27722 0.80108207
471.73734 649.3103 0.66069174
646.84119 780.00873 0.82892263
450.22748 727.44 0.71810275
567.03949 764.92035 0.80059254
389.42654 814.50635 0.83110619
417.20114 803.14429 0.83169019
461.22131 815.95184 0.85467952
541.88617 610.13324 0.6594336
356.34479 835.67102 0.85100716
275.42532 839.86169 0.86230969
303.83356 833.48828 0.85443503
625.42743 679.23669 0.72754771
432.41736 671.71008 0.63250393
430.95184 802.047 0.82413197
581.26392 759.49036 0.78371495
550.75677 716.79907 0.75393522
479.31348 789.14093 0.80937719
664.83704 794.96808 0.8358224
602.84778 824.28387 0.84658796
465.77951 799.78387 0.81573075
495.58206 349.10034 0.279504
699.29639 721.54236 0.73609006
672.1297 764.84717 0.79570127
505.81564 710.51276 0.68652344
651.479 432.7323 0.48351365
637.52271 741.21454 0.750817
431.95258 604.53455 0.56841224
482.3335 320.55429 0.22376658
493.53253 786.31299 0.79042757
524.81042 735.79572 0.75762665
512.19287 709.89246 0.71840268
539.64166 806.23901 0.82173401
439.70306 737.02051 0.7418893
392.68405 810.50647 0.80759513
533.30151 533.33313 0.42381588
2981.709 8.201169 2.3486774
2919.439 26.563705 2.3093946
2859.1021 44.472519 2.2523649
2839.2097 50.756504 2.2460515
2821.9067 56.094849 2.2235334
2727.5122 84.254791 2.1579158
2710.771 89.229645 2.1365428
2691.8303 94.807899 2.1296525
-169.65428 -152.77359 -1.3846807
1490.7423 415.9534 1.2606808
-76.855774 -34.500999 -1.008539
308.84171 372.20306 0.16721366
788.04254 430.8927 0.66376317
628.29028 98.912643 0.59114814
1632.4415 413.05466 1.2930819
1624.6412 415.57794 1.2920382
833.66547 509.88663 0.73297334
1606.9865 420.67477 1.272998
1598.8708 423.24655 1.2724551
1582.5035 428.0542 1.2538809
1574.5907 430.49292 1.2537713
1487.6339 469.47177 1.1868209
1455.2729 475.84259 1.1694306
1443.592 477.85916 1.1595871
1429.853 483.57654 1.149905
28.186743 896.36084 2.1741908
1426.2863 475.04727 1.1416633
1313.1832 508.94415 1.2044735
1379.413 486.89536 1.1043117
1273.2122 572.31952 1.0391927
648.65405 398.97766 0.5436945
1303.7054 511.75296 1.0369022
607.86359 524.76654 0.5008049
1304.9119 511.40335 1.0343544
1211.2181 539.4574 1.0779049
744.20355 497.19772 0.61759675
1309.5608 441.59241 1.0153065
804.81165 456.52844 0.67997754
1268.7596 519.87482 1.0097058
1221.5505 571.42126 0.98578548
414.8573 483.10245 0.35808316
583.72449 525.30609 0.49705473
1256.2002 520.02936 1.0006374
1341.2881 1120.9938 2.0387001
908.50897 906.31628 1.6679486
1114.4229 740.88361 1.2719127
1204.1555 541.67694 0.96490312
1084.4103 831.15466 1.4931711
1219.0846 1147.2814 2.0791895
1211.7075 504.6424 0.94567686
1211.7075 504.6424 0.94567686
534.79657 627.79956 0.83613783
1228.1221 769.45795 1.4733281
1040.8718 741.09283 1.2885609
1003.6171 1090.8794 1.8108032
718.26385 625.78046 1.0157226
1011.3668 872.13965 1.4537507
633.97333 668.76617 0.9361819
1002.653 863.58905 1.4311936
1035.6324 874.89703 1.4579624
575.06494 414.03674 0.48860958
1177.506 560.71686 0.93558896
1287.0447 891.52637 1.5579287
947.57001 807.84521 1.2859347
947.57001 807.84521 1.2859347
753.6969 587.00336 0.95476693
632.29846 662.56604 0.91012323
942.39783 802.42877 1.2720102
974.57422 812.91327 1.2981201
974.57422 812.91327 1.2981201
1168.9801 402.25079 0.8352102
923.5177 781.53699 1.2194195
923.5177 781.53699 1.2194195
1125.1918 349.59198 0.75565672
675.98724 593.53711 0.87486523
875.08978 735.49518 1.0965179
875.08978 735.49518 1.0965179
897.8327 742.80145 1.1097561
897.8327 742.80145 1.1097561
865.42072 729.47253 1.0769837
860.55438 726.65771 1.0674999
860.55438 726.65771 1.0674999
843.14539 718.27588 1.0363033
843.14539 718.27588 1.0363033
595.86865 614.32831 0.8178615
658.94946 705.61365 1.0481136
666.96564 1019.0076 1.3934366
552.3631 771.18304 1.0601718
979.73352 728.99408 0.88729674
953.07764 620.25543 0.83175093
676.97711 526.03503 0.64367819
979.92651 706.14557 0.95911413
628.59961 689.09259 0.8992613
355.00064 834.58405 1.0376428
417.229 163.88364 0.27984235
618.0072 787.42316 0.94767684
612.68213 759.19464 0.86730307
547.75757 806.29584 0.88798279
248.29102 849.50977 0.94731939
362.61102 891.4707 0.97728097
329.21295 528.52661 0.35081872
245.31937 849.53778 0.9327445
559.13263 759.01636 0.85794216
559.13263 759.01636 0.85794216
891.70526 549.83026 0.66966748
891.70526 549.83026 0.66966748
511.04337 452.46698 0.44272456
353.34708 751.8139 0.78807575
760.44 620.96692 0.70264006
240.6731 849.24176 0.90948308
654.7829 772.44977 0.85629243
654.7829 772.44977 0.85629243
683.78271 731.87695 0.79683954
683.78271 731.87695 0.79683954
588.65936 388.19019 0.41009796
526.47015 763.78558 0.79622352
579.67676 553.70721 0.53242081
491.31955 340.4299 0.26940024
539.25018 811.5376 0.84972954
228.54832 766.02808 0.8102749
545.97827 773.41144 0.82991493
576.42932 720.08099 0.79316366
489.28976 787.88898 0.82525128
429.73303 711.40582 0.70105535
587.70624 750.28186 0.77277726
135.48643 117.0844 0.13978818
530.84412 808.12683 0.83621716
702.64941 484.8692 0.51433367
546.79059 716.70081 0.70202935
474.9472 789.50751 0.80298978
410.45258 806.81476 0.81767672
594.48877 754.83557 0.76954681
598.55957 742.33392 0.75072259
375.05881 685.79364 0.62593222
466.19931 725.58795 0.70300037
574.99927 760.7298 0.77415311
591.32288 755.12909 0.76691234
524.07825 770.83588 0.77785963
213.96701 732.40234 0.72977859
469.43719 771.349 0.76745707
559.08722 748.38385 0.7740218
450.74298 795.39532 0.79806733
550.29913 557.11713 0.45407078
405.92877 806.52435 0.80841565
-197.90903 -160.45938 -1.4157238
1954.894 316.24384 1.5434693
1969.2894 319.8746 1.5635445
1909.1281 333.74219 1.5134513
1924.6176 327.67792 1.5248743
1902.1251 332.06042 1.5055467
1902.1251 332.06042 1.5055467
1705.9751 403.13898 1.5806205
1756.5914 375.6965 1.622355
1705.9751 403.13898 1.5806205
1756.5914 375.6965 1.622355
1705.9751 403.13898 1.5806205
1619.7712 416.7739 1.4937536
1619.7712 416.7739 1.4937536
1619.7712 416.7739 1.4937536
1619.7712 416.7739 1.4937536
1619.7712 416.7739 1.4937536
1619.7712 416.7739 1.4937536
1619.7712 416.7739 1.4937536
1572.9038 432.48434 1.2569617
1550.984 437.64032 1.2355044
1537.0127 441.69058 1.2173998
1527.4469 444.66431 1.2172444
1470.6746 458.5816 1.1674565
1479.5676 467.22894 1.1877176
1504.7745 451.54224 1.1996244
1458.3278 460.76343 1.1570269
1492.448 455.06354 1.1826385
1489.8705 453.67456 1.1867206
1445.646 462.8511 1.1462235
1470.6664 461.63281 1.1660347
1440.0217 473.48532 1.1539824
1449.5845 467.98279 1.1503078
1447.3107 466.30072 1.153766
1436.0366 469.97781 1.1388465
889.64008 555.79645 0.82550013
1392.5254 477.15439 1.1050559
1403.2455 484.20813 1.1163653
1428.7668 460.99603 1.1328272
1394.2919 471.11371 1.1031624
1390.0431 485.84262 1.1048708
1376.239 492.25766 1.1018878
1385.072 480.35504 1.1060133
1371.5112 491.40671 1.0904114
1363.5216 493.88107 1.0909077
1353.4763 496.82541 1.0762075
1339.729 503.06512 1.0740734
835.83691 458.09921 0.7156564
1335.944 502.13879 1.0624599
1327.993 504.55881 1.064034
1294.043 537.13849 1.038325
1318.6383 507.31403 1.0488535
1300.1029 542.27905 1.051138
1310.5459 509.79736 1.050878
1283.053 517.90997 1.0398632
748.47076 498.94226 0.62645203
1192.0585 545.41797 1.034852
1130.1897 454.12125 0.89281124
795.32562 440.9451 0.66926366
513.16608 437.92273 0.43335256
1225.3501 539.50159 0.97264194
1224.6786 543.89667 0.97341269
1216.9613 537.90778 0.97637969
585.802 679.44183 1.0500181
1213.4838 538.85162 0.9600606
1213.4838 538.85162 0.9600606
1322.3265 1210.8312 2.207247
771.55304 948.6626 1.3435032
429.41638 706.29199 0.79292023
837.18768 1041.6381 1.5637836
1559.8112 1495.2046 2.6562204
1201.6407 538.17102 0.94749814
1201.2393 542.54987 0.94854987
750.13934 665.44904 1.0885465
1174.6462 565.91327 0.93227744
743.66907 822.30957 1.3586171
1190.0273 537.13293 0.93470263
1190.2216 545.90985 0.93751317
1179.7106 549.05066 0.92638117
1179.7106 549.05066 0.92638117
783.09296 619.49872 1.0467598
1181.9744 486.15524 0.90378994
1169.8762 551.94598 0.91614443
1152.3152 557.32288 0.91961616
1148.0565 558.57813 0.91172928
1148.0565 558.57813 0.91172928
1128.6659 694.54138 1.2466192
1141.0186 362.77762 0.78069025
1140.579 565.46246 0.90431714
682.78546 302.74948 0.58393621
1158.6185 428.78128 0.84207118
1159.1849 433.63635 0.84589231
399.97568 523.40771 0.58242548
636.53357 638.9209 0.8490504
1122.8029 566.24341 0.88340014
1122.8029 566.24341 0.88340014
1114.9093 568.61719 0.87416422
843.29572 776.09619 1.1820666
836.89838 765.89288 1.1642932
836.89838 765.89288 1.1642932
669.61377 616.07605 0.66747326
324.05298 476.24203 0.34245825
1013.89 637.89783 0.85786361
1007.7141 639.71924 0.85962492
919.00952 700.52216 0.93773091
917.72009 697.40802 0.93168604
987.81171 740.72882 1.0160776
649.70264 823.95587 1.0668529
646.45776 493.26779 0.56081325
267.51193 849.23474 1.0210149
266.64536 884.74512 1.0420915
251.42732 849.349 0.95926487
869.04675 682.98126 0.73451579
824.34332 639.42346 0.76812232
632.9425 680.19135 0.76577049
651.8042 745.07013 0.83679891
651.8042 745.07013 0.83679891
505.81689 546.62457 0.62676263
622.14655 577.61267 0.56259942
484.11545 793.45947 0.88086015
244.82224 849.4021 0.92703503
513.51929 785.52002 0.86981499
409.75128 808.46204 0.84166259
628.90125 768.86139 0.81788611
550.43604 736.56018 0.77658767
218.41922 735.50409 0.74735993
527.41821 775.26306 0.79585165
607.70862 742.62494 0.78623009
643.94196 739.59796 0.75877005
411.0387 680.67792 0.61641431
1677.6963 281.98364 1.2510129
2747.0359 78.186844 2.1574848
1126.4138 442.8382 0.97052157
2409.5791 180.95169 1.9116408
-171.54486 -147.97331 -1.430324
2382.4951 188.76241 1.8900564
968.2774 613.93073 6.2599988
2353.9375 196.35773 1.8668694
2241.9319 230.44205 1.7654781
2324.9043 205.49983 1.8367348
2324.9043 205.49983 1.8367348
2190.9653 289.26053 2.0359871
2190.9653 289.26053 2.0359871
2302.3079 211.80913 1.8255315
2121.9021 265.81042 1.6768653
2252.6133 226.87241 1.7863318
2156.2671 256.97232 1.7056532
2157.4197 255.48837 1.71214
2094.7146 275.47437 1.6635205
2123.4463 262.71625 1.6776397
2123.4463 262.71625 1.6776397
1990.8309 307.01794 1.5767442
1990.8309 307.01794 1.5767442
1991.6482 305.06125 1.5819368
1970.114 312.01901 1.5599447
1970.114 312.01901 1.5599447
620.81488 505.9631 0.45556667
299.53375 427.77396 0.17509225
1912.9788 317.66776 1.5086626
1913.1478 326.14212 1.5131429
1887.8809 338.07263 1.495322
1873.7615 340.8295 1.4894584
1814.7559 350.99915 1.4336488
1838.6555 351.19299 1.4618911
1846.4817 346.83218 1.4608834
1833.8429 352.51654 1.4521399
1793.674 366.36362 1.4278208
1775.4634 370.15741 1.4126673
1759.3796 374.87335 1.389275
1734.0238 384.63681 1.3814119
1729.8777 383.74652 1.3661447
1716.0089 388.1456 1.3662565
1701.2572 392.33997 1.3435032
1688.5503 396.32083 1.3445294
1650.1991 408.88892 1.3160065
1635.5696 412.23337 1.3044804
466.06772 421.47784 0.39903587
1590.2834 429.56479 1.2718987
1546.2816 427.37393 1.2220632
21.750792 930.1167 2.2902799
129.4641 -4.8325834 -0.31773156
1347.6936 498.58902 1.2015003
53.82391 -91.053307 -0.94005936
27.501581 895.86493 2.1278036
1316.5865 547.44653 1.1527144
1445.3199 449.54111 1.1452812
1299.36 310.00409 0.90308893
1310.1753 509.7952 1.0462935
1219.7941 536.60791 1.084403
1288.4286 530.52209 1.0717524
1337.7841 533.90082 1.0978664
1216.3043 537.7973 1.0775722
1307.6831 556.97815 1.142193
1266.4265 522.87292 1.038797
1323.0049 532.39203 1.0810086
821.83215 444.15942 0.66564971
411.71869 381.4581 0.350822
516.76099 247.2533 0.35929322
290.02023 177.10234 0.40407473
506.21973 772.33911 1.0629045
1046.3766 822.7832 1.6066177
1208.0741 1032.8126 1.9817833
1358.6091 997.65472 1.7915599
634.75507 369.6214 0.37339687
1541.5359 1106.5089 2.1244459
1042.8639 831.02271 1.5996761
1157.2914 863.8642 1.456468
1408.0983 867.13928 1.6707187
919.11639 757.83868 1.4062389
844.55475 874.97607 1.5515516
1004.6036 853.12854 1.591056
1250.7814 549.30292 1.0451019
1302.797 1052.9386 1.9476808
753.71606 831.29297 1.3864381
1230.9888 399.63358 0.89862794
1222.9016 495.54501 0.9555487
1178.804 555.32947 0.93240047
720.21063 675.86877 1.133136
1416.6316 885.11859 1.6533582
1158.4725 726.04675 1.3313251
782.22321 799.91882 1.0870843
779.70911 717.22552 1.2314194
1029.6404 594.32556 0.90857893
717.17114 530.38666 0.67715484
289.88315 173.08243 0.27285957
514.92938 571.87994 0.64952165
992.74542 742.65973 1.0195944
707.42883 567.67474 0.72492892
529.7356 708.46478 0.88683277
688.07855 496.15497 0.58730376
457.28888 535.12012 0.41723499
457.28888 535.12012 0.41723499
862.30322 682.25409 0.73056889
824.64069 574.25555 0.65617847
838.03027 595.32782 0.67260104
782.21771 566.19604 0.62094951
618.62085 736.13605 0.76614052
425.95535 679.59271 0.64029837
716.35852 603.03589 0.63620615
2874.6282 39.720913 2.2819242
2758.3616 74.609268 2.1897004
2722.0005 85.460915 2.1608515
2677.3184 99.353065 2.1032996
2648.1685 108.42265 2.0904722
2681.4998 96.084991 2.1275051
2615.855 118.24338 2.0653133
2556.7261 135.96912 2.0285954
2516.9893 147.63593 1.9787897
2491.1003 155.9014 1.9674394
2491.1003 155.9014 1.9674394
2495.0955 154.66183 1.9797777
2488.7124 156.59789 1.9571648
3196.2727 254.03532 2.8574915
2413.7844 359.64859 2.122927
2463.0811 164.52048 1.9456638
2463.0811 164.52048 1.9456638
1814.0474 358.85739 4.082253
2406.9077 181.59512 1.9016327
2406.9077 181.59512 1.9016327
2377.9126 189.61337 1.8784858
2377.9126 189.61337 1.8784858
1768.3217 372.16608 1.4013052
1768.3217 372.16608 1.4013052
1739.5548 380.86459 1.3787361
1739.5548 380.86459 1.3787361
1708.0984 390.35468 1.3543136
1708.0984 390.35468 1.3543136
1680.9259 398.44836 1.333032
1680.9259 398.44836 1.333032
1744.587 287.12924 1.3250216
1655.0552 406.20441 1.313114
1647.8441 408.24295 1.3012205
1660.6818 266.409 1.2293535
1629.4415 270.39117 1.2012082
604.13428 443.60391 0.57210231
62.60059 -58.500504 -0.85168922
1524.0792 432.83154 1.2443683
1434.3278 591.49719 1.2559133
1393.889 383.064 1.0823066
1457.7098 464.33466 1.2041123
1293.0313 521.95209 1.0790927
823.48584 452.41641 0.70177746
1271.5908 546.66882 1.0586821
1338.6021 590.51782 1.177694
1236.9463 498.96039 1.0632807
1231.5027 552.17169 1.0680667
1263.2467 552.2738 1.0428177
1102.8052 488.06146 0.88090509
658.72766 554.10156 0.54696918
664.74231 558.16595 0.55868518
429.69611 501.89987 0.36516532
1184.7806 547.70758 1.0258046
1190.2701 547.8905 1.0194552
411.00195 468.1651 0.35465029
409.54196 465.74234 0.34909293
771.98425 528.95282 0.6513316
1206.3878 321.20834 0.82205224
60.699455 211.37428 0.075595722
1323.7987 1105.0597 2.0655913
1293.4286 846.73657 1.5792224
725.25415 761.98376 1.1787721
1007.9833 707.21051 1.280543
831.41931 736.97107 1.32722
979.40558 795.75781 1.4120106
490.07764 479.41119 0.42678314
779.40112 717.43042 1.2315617
1261.2643 788.78577 1.4015528
1066.9957 814.11548 1.2974565
530.77844 563.40948 0.69789529
1050.8459 775.30066 1.0078607
712.4942 534.60657 0.68836778
526.82544 770.12878 1.0879047
327.44879 485.3053 0.3634069
806.8103 798.1651 0.99292058
941.87909 600.86328 0.80400234
574.25659 655.03955 0.62265652
844.95294 596.3316 0.68017894
608.62225 484.90836 0.50763702
228.69031 849.36346 0.85344386
639.31049 747.43335 0.78622222
225.81544 849.34973 0.8423627
2959.8894 14.231247 2.3506629
2559.1958 129.96712 2.0169842
2559.1958 129.96712 2.0169842
1719.2622 385.89862 4.6989169
1719.2622 385.89862 4.6989169
-562.44629 -222.33781 -1.8480167
1714.8119 300.68704 1.3035283
1714.8119 300.68704 1.3035283
1311.0258 509.76685 1.2137965
1311.0258 509.76685 1.2137965
505.63525 527.12775 0.46118224
1298.5824 513.85938 1.0325596
1298.5824 513.85938 1.0325596
1298.5824 513.85938 1.0325596
870.48462 493.60501 0.79266262
1219.5205 539.11786 0.99575871
1351.7817 1138.2258 2.1524372
662.89832 559.54553 0.55619633
1114.7317 449.33047 0.87804979
671.93109 545.21503 0.56434965
1202.6989 542.18604 0.96487182
601.14056 290.41959 0.24888971
1079.2937 840.64154 1.5070608
728.43549 673.7406 1.0949069
652.14972 585.05109 0.8947019
396.22763 556.65973 0.63187081
851.69708 977.13452 1.4168714
745.91254 555.01782 0.84764236
936.61664 828.4007 1.2087841
763.72009 545.2774 0.73305404
560.82111 463.61041 0.52871388
534.93933 588.13116 0.68130463
538.76575 589.77112 0.68510836
529.54047 594.23627 0.68046582
904.91852 592.16028 0.74559265
339.53958 453.03973 0.34056628
251.97997 909.16272 0.98540145
139.65881 96.717026 0.10859644
650.61017 464.83365 0.50860262
872.87115 525.54132 0.63361758
233.52443 836.33673 0.8595686
2120.7444 266.31262 5.8657484
-490.22552 -165.47374 -1.6986058
2042.3317 403.5206 4.7173266
1805.9473 381.36676 4.6174941
253.94055 391.85873 0.075735562
1169.1488 432.77359 0.98075843
1621.7916 400.17618 1.277797
840.73621 445.55438 0.74403059
852.45691 479.11066 0.75103688
1165.4298 387.47723 0.9735446
913.82861 655.59814 0.85112625
736.01215 551.28278 0.63016391
658.30029 294.87881 0.58197689
808.10254 715.9884 1.2466376
1219.066 539.69373 0.99609458
532.53851 685.65582 1.037609
511.39252 617.34082 0.86335802
151.67551 102.49263 0.19407396
1009.7549 706.48303 1.141448
1357.7454 866.76965 1.5832372
1116.637 690.27075 1.2315744
688.69916 601.55115 0.88617235
327.33099 111.26064 0.26415542
973.44684 629.88373 0.8999846
440.59488 652.89478 0.86528552
534.07336 609.17474 0.51794767
904.06842 592.44122 0.74524063
259.98627 848.15686 0.98358452
239.06412 848.89795 0.88804269
788.29578 569.6344 0.62627304
233.80249 835.81323 0.85860837
2343.9377 200.32584 2.7036238
1717.1843 387.24649 4.5496607
1800.3969 363.01965 4.3024235
2230.77 234.6595 2.5973656
1520.5438 448.66544 4.4711132
1520.5438 448.66544 4.4711132
1429.8992 473.27997 4.3774538
1823.5594 355.64743 1.6998824
1340.0789 500.88879 1.1861856
1246.626 528.68097 1.1551266
1306.921 522.50671 1.0719527
636.99518 405.11472 0.5409314
729.03833 570.08203 0.60357219
774.55139 679.86194 1.1541104
1067.3872 828.2995 1.6160787
1239.7705 1069.9269 1.930074
1072.629 760.7077 1.4387537
1256.1738 842.81531 1.5346353
641.34332 845.73883 1.1424869
789.42847 772.23474 1.3652812
369.99765 179.16745 -0.11900196
1053.9091 813.89728 1.2876042
476.72043 661.37689 0.68236607
981.31799 639.59546 0.89858097
530.26581 595.58856 0.68365043
611.90906 479.67728 0.49943611
709.8808 623.0907 0.60248202
650.34564 391.40268 0.49148867
1209.6815 539.0293 5.6515946
-454.13461 -33.422592 -1.3076718
631.04297 407.60828 0.56923181
833.64264 605.61945 0.72743231
1363.3723 493.37329 1.1913573
582.60431 418.2637 0.53822839
1241.9497 326.12784 0.87082618
616.61188 511.48883 0.6060546
999.03473 864.60419 1.5801488
985.60693 817.37244 1.4660629
80.276657 253.64037 0.18824495
1143.5465 1023.8326 1.7184041
773.25317 614.37732 0.98577881
710.62628 585.35138 0.92027628
974.70557 651.33209 0.87840158
790.30939 564.24249 0.62152976
2356.8608 195.27879 2.7126417
1101.1678 593.82037 6.1283226
1303.3359 512.43817 1.1516159
981.3822 741.38983 1.2363063
842.1886 761.31909 1.3862232
1038.8235 1000.0186 1.6671643
1325.2793 1265.3811 2.1028531
956.37854 711.71832 1.0678421
672.71448 522.2959 0.74504727
609.57684 653.56171 0.77312768
341.07678 833.59229 1.1033641
790.32672 563.89923 0.6210019
2223.2405 234.8969 2.1244075
445.20322 493.26801 0.38196945
1267.745 564.40924 1.0917437
522.59467 571.95593 0.81647217
1308.4478 801.68292 1.5271673
81.843361 265.95856 0.22691067
881.11658 627.17114 0.88717675
867.95947 527.14056 0.79813761
1267.5399 564.3103 1.0913984
896.03546 707.62677 1.116865
759.98022 525.20123 0.66573626
2080.7466 282.15366 4.0424867
-489.13071 -221.40401 -1.7798606
1398.8392 1435.1118 2.5431688
333.31146 191.96294 0.42169631
787.90552 575.30219 0.95146316
715.6861 591.63092 0.94798738
911.97369 706.22302 1.0837809
762.0788 526.56476 0.67013031
847.12872 568.1582 0.67901152
794.10583 561.91162 0.62123448
2032.4795 306.83694 4.8089962
1330.5234 588.44177 1.1479933
1392.0159 1020.1661 1.765853
401.41501 725.00421 0.93832988
2634.2478 136.00136 2.7864697
-328.94974 -150.93062 -1.5546464
-860.19513 -304.95273 -2.2009048
-702.35681 -304.62317 -2.0791383
838.85303 799.97321 1.4526688
1065.4536 900.99225 1.5651047
233.06149 165.87526 0.26477346
532.39618 478.901 0.47718608
537.23254 548.22968 0.49122471
931.45111 510.80725 0.79876691
376.60208 522.52612 0.40900984
463.88376 565.29608 0.48942858
326.00089 841.82867 0.99847138
698.57593 422.76529 0.68917966
589.27979 772.2265 1.1647278
176.67662 36.467731 -0.39426139
